# 3D point list with one line of data per point:
#   POINT3D_ID, X, Y, Z, R, G, B, ERROR, TRACK[] as (IMAGE_ID, POINT2D_IDX)
# Number of points: 413, mean track length: 2.9145466405740379
236 3.5079375610825463 -0.79354631014919264 7.5318977556720341 191 180 153 1.3020629374408204 39 9152 40 7120 2 7766 1 6055
235 3.6939986178581585 -0.83607361528728685 7.2898503129091061 188 178 155 0.9336231743559974 39 9138 40 6110 1 3162
234 2.8677398859217011 -1.0281410824943167 8.3352947225824572 151 144 124 0.64175677055672042 39 9121 40 6154 1 6019
230 2.5638937545565996 4.1370274614941147 8.7514350114643076 178 171 155 0.47347012398090549 39 8390 40 6747
229 3.6680511257436423 3.4212858131683048 7.4354902127316587 182 171 151 2.3258996226687643 39 8388 40 6674
227 3.521113772468504 3.2694199804679425 7.5999471836869885 188 177 158 1.6205921584609855 39 8310 40 5249
225 3.8794352338362037 2.8993163606028691 7.1508349771750215 195 187 167 2.1272001618592618 39 8270 40 5174
224 3.8185186132076869 2.5608325639803389 7.2244511377039444 192 185 167 2.0103785765046811 39 8182 40 6598
220 3.6803352570487511 2.2563423437397057 7.3869105300288105 189 181 161 0.58851825168211103 39 8071 40 5026
1261 0.20646211145018836 -2.0156199589627839 7.8418982920406259 182 190 193 1.1916174116527543 1 9519 37 10181 15 10657
152 3.8543402045528241 -0.070671262885373856 7.1326141049548646 152 137 108 1.841284493475567 39 7230 40 4374 2 3439 3 2675
1264 3.9117152853138948 -1.7701185797973136 6.9791655950991638 124 111 97 0.42554169161733829 39 6292 4 279 2 2725
155 4.1855006881091352 0.039273693650324334 6.7155437413345105 206 192 172 0.8358556582168325 39 7282 40 558
1270 2.9918461707680342 -2.0867259237754583 8.1625435100380663 179 170 155 1.0985251040248869 37 6206 4 1165 41 4110
161 3.1743949912814511 0.24117374840242456 7.987548074222163 134 126 106 0.3412560142141392 39 7342 40 4562
1274 2.801088105568819 -2.3597477260573156 8.4011584938508896 181 174 158 1.3561096792057883 37 6097 4 1242 41 4255 39 1464
165 3.0098652830439274 0.2900966939225208 8.1861064597086255 120 113 95 1.4465049810713335 39 7357 40 4614
1275 3.4308740486640659 -0.90599792182653938 7.6339319503848317 121 110 91 0.81443969374769587 37 6683 4 1278 41 4102
166 3.7505996571117337 0.27152155633013852 7.2724990971754417 187 174 150 0.52056485072789893 39 7367 40 6281 4 6123
1277 2.4505693612512403 -2.8508143421478396 8.8501637948179983 188 183 169 0.9653766914034988 39 6025 4 1382 41 6664 3 1898
168 3.4173082130482526 0.29613919130077965 7.6779044267403931 147 136 116 1.71711215679336 39 7369 40 4552 3 2909
1287 2.958346767891713 -1.1194885403760939 8.2218675454625689 200 194 184 0.28297319703535795 39 2514 4 1732 41 4705
178 4.142035696775654 0.54468611817636148 6.7774011800100471 205 189 166 0.5768382325422986 39 7493 40 4540
1289 3.4676097773606118 -0.084794832857524913 7.6115845746094219 121 112 97 0.67214572386056837 37 4325 39 3262 4 1745
180 4.1865734385844782 0.56950962821566364 6.7156254763076699 163 145 121 1.2447569551754352 39 7513 40 6308 2 3639
1295 3.6007883195156642 -2.9132311136097222 7.3460008829715573 147 135 123 1.4018661463388253 39 8605 4 3866 3 1284
186 3.3018091148318587 0.9963320412098654 7.8583965263093516 151 140 120 0.074603841169025492 39 7617 40 4745
1299 3.7889341983914884 -0.54025342675052379 7.1836652585671423 136 128 108 0.98936071741253118 40 4204 4 4227 2 3277
190 3.7581764838818632 1.0652943942326301 7.2773749627303621 161 149 129 0.89474340844472078 39 7673 40 6420
1300 4.0049091457096635 -0.00047522942030821735 6.910068500451227 178 164 146 0.51276690938185732 40 4363 4 4232
191 3.3475036715756716 1.1749791883038283 7.8141534211691557 134 123 104 1.0135951244479 39 7679 40 1382 4 4791
1301 3.0651844820223877 -1.9790727281880296 8.0722521197714876 166 157 142 1.6773324233892328 37 8997 4 4263 41 6455 3 2035
192 4.1921614045552751 0.98006727911395286 6.7229800885097477 126 110 82 0.81840919253620203 39 7684 40 6386
1302 3.4728557493559693 -0.76345263305754518 7.5854139931510387 193 184 169 1.0501604442843335 39 6933 4 4323 41 6494
1304 3.4932586300412365 -0.17595888283882552 7.5816164716666696 202 193 178 0.14625550515912866 39 7193 4 4444
195 3.8439726830644858 1.1404789039976948 7.1857088488375451 195 183 163 0.62284945197852881 39 7713 40 6436
1320 -94.239809104951632 -95.515785576126859 128.76473409158419 202 194 92 1.0569297578568908 1 4944 4 5158 2 5496 41 8630 42 5771
211 3.983252859221734 1.7762900929897094 7.0044506054374427 127 115 95 0.72393450560389394 39 7936 40 4884
1323 3.8804950695013138 -1.6443324407400786 7.027022999967377 212 200 184 0.97933459091672237 39 6384 4 5868 3 4990
214 4.1021108501832018 1.8153340013394452 6.8569864906924991 153 141 121 1.7463772021732371 39 7969 40 4889
1325 3.6419321784974152 -0.4522117193535134 7.3669297816354469 132 121 101 1.0802691842891299 40 6182 4 6071 3 2547
216 3.4877480282804405 2.17349429416748 7.6378284768094318 181 172 155 0.28885203160900008 39 7998 40 6552
1327 3.5195126342580472 -0.26670613875935523 7.5469055096217117 157 146 129 1.525902655597595 39 7152 4 6107 2 3404
218 3.3410598337457489 2.2991499587683939 7.8223851004986003 173 164 147 0.78953749748493851 39 8031 40 5041
1329 2.4339903192520209 -2.2750805825576723 8.8703294100173977 170 165 152 1.1757708231898683 39 8905 4 6142 38 10609 41 8981
1330 3.0497981399624323 -0.78647666942237437 8.1170077843880808 141 133 120 1.4146484209570445 37 8373 4 6166 41 8983 39 9168
1338 -95.547857503242454 -96.010789126118368 128.82832481217588 191 179 77 1.1222152777755223 1 4943 2 5493 4 6532 41 7593 42 5774
1341 -92.178314098676609 -89.885390478437827 127.00206988848113 176 185 190 1.0778845526309595 1 7015 4 6545 41 8647 42 6838
1354 3.712187394972978 -0.12142165779592277 7.2868974327158931 197 186 167 2.2757193870849934 40 7156 4 7074 3 7294
1355 3.6791685055632102 0.13584246237248304 7.3749410974871283 182 173 156 0.54640102706888305 40 7193 4 7099 3 7368
1356 2.4394234998888358 -2.2047508581986079 8.8561065341367851 158 150 138 1.5569395570494693 37 9471 4 7107 38 11053
1360 2.7886439288561276 2.3883923081623606 8.5573281320837609 177 173 162 2.5580453184137513 40 5062 4 7311
1361 -92.383657442953421 -94.289205939910005 127.31462473629037 57 51 40 1.2859933073309868 2 7391 4 7348 42 6825 1 4945 2 5497
1362 -93.473957632760289 -93.472451028577169 124.83852512301058 87 84 67 1.5140137138113088 1 4939 4 7350 2 7388 41 8633 42 7630
1365 -92.46839107563143 -91.006250404926163 129.27061238555962 177 186 193 0.3948409566207845 1 7016 4 7372 42 7638
1368 -83.739964578258807 -73.343087050288602 113.70905017382371 126 125 120 0.99528940676168975 2 7465 4 7395 1 7085
259 4.2254459035102645 0.24897120675166459 6.6503363505050794 154 135 103 1.1178329472037674 39 9380 40 6246 2 6376 1 6285 3 5628
1369 3.6322291071943003 -0.61268526069260898 7.3842205158188605 133 122 105 0.91959845522239048 39 10329 4 7614 2 8658
260 3.4569070126740198 0.31306130189535331 7.640686998362173 138 127 107 1.3804366849448517 39 9386 40 6319 4 6199
1379 3.4353827241456969 -2.3646248855715482 7.5604450945185109 165 156 143 2.0820408301619926 39 11125 4 7919 2 9118
270 4.2673372283883522 0.66740723877143115 6.6245922231444654 200 188 166 0.69847105094660056 39 9480 40 6324
1388 3.2500820382731002 -0.53646969486048457 7.8783733957370679 79 77 72 1.968146332847732 39 10340 4 7110 2 8669 1 7568 37 9577
279 3.1033212684342137 1.1222274381159314 8.1004409578842935 137 130 114 0.65284372088499321 39 9534 40 7276
1403 4.0327852062927398 -1.8366675061493785 6.840683122526249 0 0 0 1.68257977526915 39 10139 2 5933 3 4871
294 3.8626263715355602 1.8408639150105772 7.0835768246093576 141 129 105 1.7161135892781052 39 9686 3 6150
1414 2.5143853503307878 -2.1494649373152046 8.7745770052285472 100 95 79 1.509686726336757 39 10815 3 7061 41 9459
305 3.2103682559154714 3.4691189175216564 7.9823301810693259 190 182 169 0.71450758336326325 39 9879 40 6673
1416 2.6440830738708061 -1.6680856980175927 8.632888212711979 167 164 157 1.7237663313096949 2 7705 39 10207 3 7132
1420 3.9129133381758727 0.27078022033034016 7.063288692133189 145 137 124 0.22769896943492771 39 10411 40 7196 3 7369
311 2.9646406198774673 -1.1974899148948936 8.2077182318090145 184 177 159 0.04321536847745986 39 10249 40 7113
1421 3.9715289611781093 -1.6637246795447607 6.9201285105870074 198 193 180 1.177719485350136 39 11140 3 8167 2 9136
312 2.8104657177969496 -1.0689858433858901 8.4347625548781071 139 132 114 0.87348371073213871 40 7132 1 7529 37 9536
1423 1.8267075544076272 -2.763407990043437 9.7157024179410048 138 138 130 0.42025915023246307 2 9144 39 11134 3 8257
314 3.6136329832612679 -0.83364028033629933 7.4023167588454459 186 178 157 0.9369083910780176 39 10277 40 7107 2 7756 1 7542 4 6043
1424 3.6593138193798924 -1.0876271342816586 7.3424488140706492 192 186 176 0.73583874249491787 2 8625 39 10859 3 8268
1425 3.5848067773058534 -1.0504525549692134 7.4426782170207666 171 165 155 0.261458828458079 2 8631 39 10863 3 8278
316 3.2625806459035958 -0.57692026151914 7.8609939355955873 146 136 113 1.0126921592710278 39 10336 40 7144 4 7104 3 7262 41 9453
1426 3.5809261341011234 -0.063343952096994088 7.4648133620375408 157 152 138 0.72615411037756095 4 7931 39 10921 3 8405
317 4.2751439284536659 -0.46348330538121152 6.5627673803187729 161 146 117 1.0880696845567943 39 10338 40 7101 1 7579
1430 0.34480422390871857 -8.97922119940079 11.462750561765391 135 129 119 2.1618850127804845 4 8115 3 8798 42 8564
321 4.1842723281807661 -0.18528728906786635 6.6782821294633035 180 164 141 1.7203216291432497 39 10364 40 6175
1432 2.9647771016059874 -0.82597497999184455 8.2303491978746575 182 179 172 1.8100553517987517 2 9495 40 7873 3 8979 41 10023
323 2.8121533571075705 -0.17667171122923825 8.4233652984009826 131 124 108 2.5429739860541916 39 10370 40 7199 3 7395
1433 3.5027913430708466 1.6965644827717683 7.5983293698835412 150 144 136 0.7663734901200383 2 9310 39 11003
324 4.2238268038419156 -0.10927358219129238 6.6458972913810239 196 180 155 1.4898374393918066 39 10373 40 7139 1 7623 2 7806 3 7222
1437 -0.21460737200494415 -7.9766552016155448 12.132485235092611 120 112 102 1.7550237061689782 1 9262 3 9500 41 10291
328 4.0692206700104672 0.24305167078217285 6.8700623804188039 179 166 140 1.0610412488434826 39 10407 40 6257
1439 -0.49065369646032614 -6.9747721067337665 12.566196098167406 156 152 149 1.7516201359164008 1 9498 3 9635
330 3.0126750588536235 0.33787072592921896 8.1943947929580272 163 158 143 1.3155069855388419 39 10409 40 7238 1 7682 3 8484
1441 3.4125377010239162 -0.14120807934384152 7.6827936326747501 87 81 67 1.4046583381635638 3 7328 39 9286 2 6345 4 6158
332 3.9147576890830309 0.31780166021394679 7.0726259012766013 193 180 156 0.6508474869919374 39 10414 40 7201 3 7383
1442 2.5090606989945217 -3.7147509919552366 8.7646251924251235 65 63 58 1.8689911622810791 39 10735 3 6854 2 7520 1 7276
333 3.3801956565144895 0.38720650872418561 7.7519390154542869 149 138 118 1.1815859773123885 39 10415 40 7229 3 7452
1443 3.4649670573374851 0.11621855742530982 7.6276919526186742 88 81 66 1.5928533851242068 39 11468 40 8005 1 9207 37 10098 3 9558
334 4.0122899628888611 0.39660089498230289 6.9449374452499217 166 150 125 1.381201395676996 39 10422 40 7205
1444 4.0560866739578882 -2.8003061695184264 6.7529559082146458 193 187 177 1.2603336486620389 39 10003 3 4533
335 4.1689982474645433 0.46557397801552902 6.7421794621458195 183 170 146 0.71781942171685142 39 10434 40 7206
1446 0.076448808233998383 -7.0556951884143349 11.904930998371674 78 74 73 2.0931679756191635 4 7636 3 6789
337 3.747902026140244 0.56252181265232992 7.2877698114745524 178 164 143 2.4879440981829468 39 10440 40 7234
1448 2.5462650477941304 -1.8556356748604541 8.7721370703663393 170 170 162 1.0481534069925835 4 7119 41 8991
339 3.1329472905569453 0.83244201162619635 8.0542392510708023 157 152 139 1.8068834597251129 39 10448 2 8772 37 9639 40 7686
1450 2.4987115794304331 -1.5640967862393529 8.7910826813242604 155 154 148 1.6120003785703494 40 7604 3 7163 39 10847 1 7475
341 4.193684189440388 0.92608758262247515 6.7287636063766785 192 179 155 0.56626740676897103 39 10481 40 7676
1451 2.5470343982524906 -2.2333226660802166 8.8115731518080835 178 175 168 0.6605005022375614 39 10811 3 8251
342 4.1571502652933257 0.99763989834889866 6.7141737966506181 207 196 176 0.87197062541833392 39 10492 3 8507
1452 2.9566345161292582 -0.92948755914151338 8.2388066715158867 111 108 99 1.7969255898436733 40 7868 3 8974
343 3.4334980378292124 1.2181997772476247 7.6781707882214603 157 146 127 1.646018059161686 39 10496 40 7277 3 7625
1455 4.201958121643262 -2.4461068379589648 6.6000471492417248 77 75 72 1.417013722193083 2 7526 1 7329 39 10744 3 4584
346 3.7773093793942878 1.3672665977566625 7.2632963938267547 183 172 152 0.5141687598971113 39 10514 40 7281
1456 3.9265871002009387 -2.3446100251633903 6.9431810795411781 79 77 73 2.7589511969120575 2 7549 1 5686 39 10759 3 6817
347 3.2361559109558495 1.803228424095854 7.9529998824439696 170 163 147 1.8303128367734454 39 10536 40 7309 2 8852
1457 -44.858447299825961 10.108286972750522 53.957249463254819 0 0 0 1.595683259986389 1 3986 37 6353
348 3.8568431853313805 1.8999858082319478 7.16347257897002 189 177 157 0.6940957281855894 39 10559 40 6515
1458 -34.808981984841232 15.292253477612361 55.915355902848418 122 119 101 1.0935366439392735 1 4279 38 2296
1459 -37.560192527376458 16.136549652297163 53.30616780060398 84 84 80 1.9716588118760594 37 3449 39 4528 38 2362 1 6620 33 3931
1460 -38.148634732652511 16.225278149955361 52.789416250441924 152 150 134 1.7134659364391556 1 4369 39 4550 38 2372
1461 -35.660336537458214 18.717279015918685 50.499094283708317 122 115 97 1.8501631211354355 39 4784 38 2584 33 4056
352 4.1144351879925578 2.2672785950697971 6.8349345018561047 179 168 149 2.8814897592693542 39 10613 40 7721
1464 -28.956652391102459 27.147197596346608 43.585635595074599 125 117 96 0.37462973805514832 37 4718 38 3202
1466 -40.640601036031249 3.9279247759442657 66.071976968131466 110 119 101 0.72823929397744025 1 3477 38 5423
1467 2.1020233086830653 -2.4029488935673049 9.2851578909570982 116 110 104 1.3854231453996917 37 2324 38 5436 41 5024
1468 0.83798923045560059 -2.3455681167217977 8.730117072130648 173 178 181 0.99157575245407081 1 2760 38 5517 15 6454
359 2.4974489987954356 -1.5739211745822876 8.7912633523884232 166 162 147 0.13722723990297597 2 7734 37 9498
1470 -42.117540251227474 11.477498368646534 57.457746458115714 186 181 165 1.9897599594544089 39 4154 38 5868 33 5670
361 3.8044519606073948 0.10317728921848961 7.1948313681371614 168 152 127 1.7180011792546339 39 10927 40 7632 2 8697 1 8355 4 7624
1471 0.84992720879771222 -1.7408633260042656 8.2105614700644054 205 221 245 0.64542800298699388 37 6272 38 5882 15 6663
362 3.8031210087437803 0.10435046350587023 7.1926586709253906 168 152 127 1.9989661621955472 39 10928 40 7633 4 7625
1473 -40.327529623405759 13.261879670478828 55.573363936344116 128 125 110 0.65117554806144839 39 7813 38 5970 33 5740
1474 -40.454797210174149 13.421951679547812 55.361970551410565 141 136 123 1.3981818123019281 39 4299 38 5985 33 5746
365 3.9646992842013264 1.2381425281565803 7.0177544942995986 170 156 135 1.4286537148116274 39 10997 40 7694 2 8807
1476 1.3403899744292864 -1.2860369521491866 8.1359292881773193 203 225 240 1.7429043493418011 37 6470 38 6097 15 3585
367 3.817625549940443 1.3979172691074901 7.152189240467778 180 169 149 1.0567025598406885 39 11001 3 8568
1479 -33.306383510156053 21.712430506587705 47.35068613367195 218 213 199 0.34086233002246863 37 4011 38 6440 33 4173
370 3.7280814207383375 1.7287368622402359 7.2976038822420461 162 151 131 2.2008712409623272 39 11008 40 7705 3 9105
1480 -32.777420346287236 23.460024657844009 46.408120056710288 144 144 129 1.4619191837425689 39 8330 38 6550 33 6029
371 3.6902481668005458 1.8459128553839996 7.3772114117487284 186 175 158 2.7678206544521138 39 11011 40 7711
1481 -32.109516383878706 23.549204465705479 46.439168066020947 97 88 75 1.5963811057509762 37 4264 38 6554 33 4271
372 3.6176370906819559 2.3221566362805834 7.4699866186132668 143 132 113 0.18748034940908512 39 11024 40 7724
1482 -29.265595239658495 26.393612990809025 43.918862127665925 219 211 191 0.26842584862053892 37 7336 38 6803
1483 -29.948948503517837 26.208380763657829 43.328170963567601 161 158 139 0.78619836991655467 37 7342 38 6813
374 2.8932935387948917 2.714710957882426 8.3598530255642416 171 166 152 2.2709380652795774 39 11027 40 7734
1484 -28.970316225155166 27.533559236942093 44.036892464227542 48 47 45 0.13734174585176026 37 7406 38 6840
375 3.7911895376159577 2.325050790153715 7.2619467831250306 180 169 149 1.1610890634500284 39 11028 40 7723
1485 1.5028017433010026 -3.2568076606426044 10.045116873204105 184 181 175 1.2608014671739525 37 5759 38 8206
376 3.8397082695376628 3.0679445850575049 7.2060791925574303 184 176 156 2.6714435892078114 39 11072 40 7747
1486 2.125326747367589 -2.9133908462970273 9.2444784697732825 163 157 151 0.47660350191917605 37 5874 38 8271 41 4784
1487 2.0159375607818353 -2.5137317271165669 9.3857185407080266 167 164 158 0.77137810375210514 37 2249 38 8358 41 5052
1488 0.86138405058649181 -2.332836278835885 8.7369029285078987 88 85 82 1.8317633712615486 37 6058 38 8446
379 3.7726207906069389 -0.23454155884189631 7.2139772542386371 188 175 148 0.32136959308957741 39 11190 40 7876 3 8984
1490 2.2645557945640826 -2.1377138397339706 9.0837519707375716 112 106 96 1.2307907941521055 37 6152 38 8458 41 4983
381 4.1868345313596889 0.076456247809520247 6.7200894814625309 173 155 133 1.0242714219360192 39 11366 40 7998 3 9352
1491 2.5495547620426642 -1.9624625016217339 8.7233849839541104 133 128 123 0.86164833546489783 4 1723 38 8502 41 4765
382 4.174950834935327 1.3469134420843736 6.6895278530169406 163 151 129 3.2216902223833301 39 11392 3 9396 2 9557
1492 2.2921010315119923 -1.7893468713376841 9.083685268630461 138 134 133 0.97547508442132935 37 2780 38 8520
1493 2.5186806307489373 -1.5512410851615726 8.7934051100408031 143 139 136 1.7678493843665448 39 2247 38 8558
1494 2.5460342583190947 -1.4176309871424762 8.7591298338902934 122 117 114 1.7048706424244511 37 6392 38 8570 41 6985 40 199
385 3.1051526730858332 1.900390631755178 8.1039436496858759 166 158 145 2.1739207093122039 39 11484 40 8100 3 9590
1495 0.88073407023340267 -1.4928926469792709 7.9508096165225108 183 203 240 0.16097037570078265 37 8207 38 8629
386 1.9766293753443831 1.6223055602068532 7.2398503894841326 6 9 10 3.0822833711183231 39 11543 40 8174
1496 2.6353297062388106 -1.0491491232397334 8.6605829540217858 170 169 167 1.8136071910895752 37 6542 38 8643 41 7021 40 403
387 3.0778682805213551 1.7515482060176717 8.1584953696526945 133 125 112 2.7563791804397577 39 11585 40 8177 3 9744
1497 -0.045900844620916759 -1.6175301297188343 7.3357258419547167 69 76 84 2.1593584908919534 1 3009 38 8658
388 1.1305203984184644 -10.349758164455405 10.618018588671919 85 82 73 0.83841798463292116 2 757 1 121
1503 1.5058501563984807 -0.71790953458035522 7.8598792542027276 187 199 218 0.76333648319279623 37 6654 38 8773
1504 -38.348236544311483 20.145261986970016 45.015849805560897 140 132 119 2.6813405258315672 37 8484 38 8806
1507 -0.32695573381674925 -3.830254680072906 9.5242722778623072 140 152 163 1.9374719023188867 37 7781 38 9660
398 1.9069083779031222 -4.9647449023469346 9.5797941106384545 120 117 108 1.7357690788898281 2 2108 1 1958 37 7651
1508 1.5208173956102027 -3.6650290367402905 9.9948482009540136 129 125 116 1.6796087410679321 1 2375 39 798 38 9661
1509 2.0617074442401946 -3.3272401892687724 9.3191003744783742 154 148 138 0.52827124553344729 2 2588 38 9701 39 848
1510 2.0756512452836948 -2.9738101612407077 9.2956925791643474 142 136 126 0.81446894948286275 2 2686 37 7927 38 9734
1513 2.189234248868916 -2.5509591108824727 9.1895670463302679 111 106 100 0.5094711011400177 37 8009 38 9802
404 3.0857964463887795 -3.8364209561753002 8.0132218059647293 168 165 156 0.71890497227075212 2 2161 37 8788
1514 -42.586771507790715 4.4313599210082071 67.843603231531347 74 76 67 1.060545378945136 1 7651 38 9828
405 3.1740379880845251 -3.7872688180850242 7.9561027652566301 116 112 103 2.4037873246072556 1 2108 37 7755 2 2158
1515 2.2122415896128391 -2.2797164064559752 9.1751169431237525 78 74 65 0.65220754722395402 37 6099 39 6362 38 9853
1516 2.3490212836421396 -2.304848043242671 8.9798925243847183 132 127 121 0.76640902278549949 4 4495 38 9854 41 6905
407 -0.073207315840244688 -5.1308758564891672 11.935692825377961 124 127 126 0.15305520063212213 39 5595 1 2168
1517 2.23525209084328 -2.0796796148114929 9.1195604449503165 121 116 110 1.1428998128718699 37 6162 38 9870 41 5035
408 2.4514054129274632 -3.9122576222153063 8.8170305517161349 164 160 149 1.6254892092053386 2 2320 1 2174 37 7759 41 3957 4 934
1518 2.5314511680213538 -2.0583376936563571 8.7417369970164849 136 131 125 0.57884415066077921 39 1797 38 9882 41 6848
409 2.0013834639325445 -4.0936947356517859 9.3811739522939845 137 125 105 1.3179341728743128 2 5777 39 5505 37 7751 1 2186
1520 -0.17577534691372348 -2.0722728635859498 7.7054212679073535 38 45 52 1.98423257890081 1 2887 38 9915
411 2.7952311238378984 -3.6747854163780662 8.4027560784440603 163 159 148 1.9404168601119622 2 2315 1 2207 37 8807
1521 -0.072261225943425558 -1.7545789669103171 7.4364512377122995 46 53 61 2.2719071952194647 1 2976 38 9971
412 2.5294604246892902 -3.7280001708275496 8.7233925330215349 179 175 166 1.720987587519015 2 2357 1 2224 37 7793 3 1478
1522 1.1926468990524555 -1.3595732941849969 8.0958367111654521 147 159 171 1.4187342071205506 37 8238 38 9985 15 8555
413 2.6299981426231471 -3.5999022497016386 8.5616412350608329 131 127 118 0.58666951767932674 2 2369 37 7813
1523 1.1680565654718689 -1.2907551482237325 7.9798910112629207 25 34 36 0.73741067809542593 37 9078 38 10003
414 3.1381172633391103 -3.374278136984258 7.9310432294425537 172 168 159 1.0948004852681346 2 2324 39 8558 37 8835
1530 -38.917517169255291 19.979202709675167 45.725849594988048 147 140 122 2.6197556945188074 37 9183 38 10107
421 1.945503829755185 -3.6832243015548229 9.4511707459537604 181 177 168 1.0946815696527776 2 2509 39 5723 1 2321 37 7820
1532 1.5958562933138998 -3.7856038310994706 9.9071723909135212 145 141 130 1.7677189115681797 1 2328 2 2541 38 10512
1533 1.8458790060627137 -3.5695916148506059 9.5864790127190922 143 137 129 0.58973767517943898 2 5878 38 10526 39 8683
424 2.1222039159305859 -3.4861557784964567 9.2259658545428209 113 110 103 0.99035946597722213 39 5777 1 2350 37 7844 38 9685
1536 2.2901690219247159 -3.2592734089486224 9.0334464161475765 165 161 152 1.7664748935631067 4 4347 37 7877 38 10542
1537 1.8327474708454479 -2.4430863713098558 9.6539150139342471 164 161 155 0.87466831420670077 37 8929 39 6338 38 10596
428 -0.33787068795915431 -3.8736158016399691 9.5285735211392932 41 53 64 1.2943346644351574 39 440 1 2369
1538 2.4733421763275869 -1.5215640884480173 8.8509067113305182 125 122 116 2.2741288751554678 39 9059 38 10658 41 8175
429 1.5194349473676505 -3.6588519068499283 9.9756147141345668 114 111 104 1.3678775301034483 39 799 37 5643 1 2376
1539 0.89764691066241931 -1.7215007757104097 8.1985233244189608 216 234 254 0.92236062215813341 37 9007 38 10668 15 9495
430 1.7195365310770618 -3.5660034950784398 9.7559639493134185 99 96 87 1.3280571470259188 39 5850 1 2390 37 5668 38 9680 41 6935
1540 0.94710641159270959 -1.5412820853474993 8.0981219928963828 74 84 110 0.46031862047467298 37 9037 38 10690
431 3.0321203577446982 -3.0358598945172233 8.0909421610751622 135 131 122 2.2700831148987919 39 8663 1 2401 2 2468
1541 1.3987593182418019 -1.3284826041383209 8.14534914288806 89 92 94 1.5072098384819315 1 7518 38 10700 15 9525
432 1.3015070565507885 -3.6055074435981336 10.270971264285972 148 145 139 2.3544893490305796 39 5905 1 2417 37 7841 38 9678
1542 0.75474314903645978 -1.4103840989104988 7.8851523400325405 47 51 53 0.62559132501225023 37 9058 38 10707
433 2.3343112990838004 -3.1853234068063854 8.956719554895729 128 123 117 0.83276343160709709 2 2576 1 2434 37 7886 38 9715
1543 0.12099866891442974 -1.3824753246997721 7.206378248219365 35 40 46 1.4075746279184784 1 3084 38 10735
434 2.5244803349165794 -3.0906318705338349 8.7274832677204301 114 111 104 0.50082577399470551 39 5878 1 2444 37 7901
1544 0.080409911465294637 -1.3751505672643594 7.1959671461292904 70 77 85 2.0021307516489166 1 6002 38 10737
435 2.5244803349165794 -3.0906318705338349 8.7274832677204301 114 111 104 0.50082577399470551 39 5879 1 2445 37 7902
1546 -0.24620807302919501 -0.24740398960364721 6.3477846771299573 83 90 98 0.66971724633782093 1 6226 38 10828
437 4.2235509905377029 -2.4423922003512764 6.5714495213654578 119 111 101 0.67033542569474391 2 2367 1 2461
1547 0.99132567232907021 -1.5690881943810371 8.1360138606256704 150 166 184 0.329243883464438 37 9497 38 11091
438 2.6180400662410817 -2.9787946001424821 8.6208459170024785 112 107 101 0.62904558603256755 39 928 1 2468 37 5840
1548 0.24873019784220485 -1.2256344770434779 7.1427283185089498 30 35 41 1.8372613984643251 1 7536 38 11137 37 9533
439 3.0668980861282109 -2.7628225506108373 8.0555056719929556 119 113 105 1.6548727489717658 39 5902 1 2483 37 8907
1552 -39.995442358077582 12.57304801411896 54.775725933623491 151 148 133 0.48693667632996818 1 9228 38 11371
443 2.4651435466303306 -2.8700798003181913 8.8266434811429662 87 83 74 1.0146125127617809 39 6006 1 2512 37 7943 4 4351 41 6649 3 1878
1554 0.16250550810106063 -1.2636547473392172 7.1518336572146133 62 69 78 1.9231836734783441 1 8281 38 11398
445 4.138472986769675 -2.3129342985455499 6.683551013005915 159 155 146 2.0376958197625448 2 2444 1 2519 3 1276
1555 -32.699719791168675 24.131472432867692 46.669554630908038 138 130 117 0.033803950811011188 39 11413 38 11612
446 2.8488976487336584 -2.6295969004583575 8.3380205799989078 158 154 145 1.308788753499089 2 2652 1 2543 37 8002 39 6047
1556 -29.849676666815565 27.10128820052406 44.59555232287758 175 167 144 0.75501900285778323 37 9941 38 11619
447 2.4284202561370258 -2.733370094733016 8.8665721924502012 154 149 143 1.7869741591110131 2 2690 1 2560 38 9776 41 4554
1557 1.8561592556985553 -0.86801087810395228 8.1005310390086667 44 47 47 0.43452422703464844 37 10009 38 11731
1558 1.9640226718411811 -0.8392528953865287 8.0685578691512969 172 181 195 0.84188652059758184 37 10011 38 11733
449 1.3159967556190173 -2.9386332691846335 10.250907256308075 126 126 124 2.0429330967319799 39 1460 1 2603 37 5860
1559 1.7539233852162244 -1.7012764839178485 8.7673529318351822 14 18 22 1.9872130567477808 37 10065 38 11797
450 2.6378208748819403 -2.5379133017662014 8.5804107849124449 163 158 152 0.84101544558465513 2 2714 1 2615 37 8021
1560 0.21800563856300012 -1.8513562492198934 7.7258221315933824 0 1 0 0.92040940675538985 37 10060 38 11808
451 3.877712999999734 -2.1752689049682363 7.0188101271433334 76 70 57 0.76418514110056124 2 2578 1 2618 39 8774
1561 0.21800563856300012 -1.8513562492198934 7.7258221315933824 0 1 0 0.92040940675538985 37 10061 38 11809
452 2.7353136480021139 -2.4901129035943357 8.4798996897451318 114 109 103 0.77098256382690078 39 6158 1 2622 37 8035
1562 2.0687707495885506 -1.3387499484956706 8.62334062511278 160 175 196 1.8626994998887094 37 10076 38 11814 15 10595
453 2.2469558278032289 -2.6226470901417973 9.1080141907960392 145 142 135 2.3851855333602074 2 2782 39 6187 1 2627 37 7994 38 9795 4 4472 41 6878
1564 0.24526746399718241 -1.6787283652646035 7.634879076084256 135 150 171 0.67947329250237443 37 10185 38 11982
455 2.4469044923754573 -2.5265982125458755 8.8432365295734154 106 101 95 1.3012057950399392 2 2772 39 6194 1 2643 37 8019 4 4408 38 10597 41 6751
1565 1.0196411249127559 -0.86384302710025207 7.3977496945708721 122 132 148 1.7510579834603774 37 10212 38 11987 1 9586
456 -3.7297926084124486 -3.2896340983775358 8.5115026104213527 124 102 91 0.022638118656153589 1 2645 37 5620
1566 1.0196411249127559 -0.86384302710025207 7.3977496945708721 122 132 148 1.7510579834603774 37 10213 38 11988 1 9587
457 2.4236243861125146 -2.5108607236942349 8.8672031967513849 161 156 150 1.1387758216573085 39 6207 1 2650 37 8025 38 10598
1568 2.5468387653161395 -1.5713168013357457 8.7517253477675769 124 120 102 1.6469537713144349 37 9754 1 8254 38 11361 39 10845 3 7156 41 9473 4 7645
459 3.1565412183527508 -2.2206227221456598 7.9347185646804617 111 105 97 1.216307797911377 2 2721 1 2675 39 6208 37 6166 4 926
1569 0.51275715607978967 -2.1662212899023419 8.4883008193607061 70 71 64 0.98144914462883825 37 6117 38 5668 1 2836
460 2.1668435391664191 -2.4503742872237164 9.2118405454463002 154 151 145 1.5575202877015288 39 6277 1 2680 37 6033 38 8376
1571 1.0941653278624108 -1.4335349538079085 8.0738592566709997 135 142 150 1.187092851459624 37 3034 38 6050
462 1.8493944827733626 -2.4653355918134743 9.6126593291561555 113 111 108 1.8129071249072517 39 6325 1 2700 38 9810 2 2903
1572 -25.992357625708294 14.345967076030837 44.248979335396804 0 0 0 0.066835363456964558 39 7994 40 5687
463 2.6048075846823848 -2.2734920710870057 8.6426287728288163 152 147 141 1.4468175536529946 2 6034 39 8891 1 2701 37 8962
1573 1.2083032798655904 -1.246702491649633 8.0921502377085961 252 255 250 1.7809097950203892 37 8267 39 2413 15 6820
464 2.545745260639007 -2.2634912417584809 8.70437503805978 123 120 113 1.801970035672938 2 2849 1 2713 39 8900 37 8085
1574 -26.93369927800325 25.595892466408728 48.251872251024523 151 147 126 1.4512941471061567 37 7213 39 9917 33 6082
465 3.6579169394608666 -1.9449591118449125 7.3114736890289747 167 163 154 0.9530770110748884 2 2710 39 6249 1 2730
1575 -3.7297814051793852 -3.143164753644363 8.6235449947786904 85 50 46 1.4681037408911781 1 5775 38 9793 2 7675
466 -5.250303550607831 -3.3305278130686351 10.665331662838605 188 210 195 0.7187669846664726 2 6152 1 2734
1576 1.2093910598235671 -1.1900617109567291 7.968418425581822 194 201 212 0.79720331399955946 37 9089 38 10014 1 7530
467 -5.250303550607831 -3.3305278130686351 10.665331662838605 188 210 195 0.7187669846664726 2 6153 1 2735
1577 1.0438395810556633 -1.8157368433824965 8.3266526659556508 88 93 95 0.041731257275873457 38 10653 15 9479
468 4.0433891690207426 -1.7936737868548671 6.8288839404597574 158 152 142 0.68815005319068845 2 2685 1 2762 39 6251
1578 0.86015646152583913 -1.4645891475462756 7.9475337709726848 21 25 29 1.6117182128236889 37 9048 38 10698 15 9527 1 5982
469 3.6433459400181136 -1.8742584760826175 7.3242366387237796 170 164 156 0.88163300814794465 2 2753 1 2766 39 6287 4 4028
1580 0.63358198918350872 -0.91147538733417599 7.0651496107505265 51 56 60 2.5375174168427268 37 9785 38 11149
1581 1.1493974493358947 -2.3131734977412761 8.9566119796386463 142 155 172 2.5750320757021212 39 10152 38 11337
472 3.8437849512472435 -1.7326285484680977 7.0630404425668782 105 99 90 0.62496519754199209 2 2762 39 6340 1 2804 4 370
1582 1.2863652869853308 -1.4589782783201792 8.2389662638780727 172 197 228 1.6837350687635841 1 9183 37 10073 38 11816 15 10549
473 2.7834401999250429 -1.9551057335242865 8.4282822914472799 148 143 137 1.36174582000737 2 2914 39 6412 1 2805 37 8132 41 6671
1583 1.0561117892412732 -2.272129414396912 8.9068959343980207 142 153 171 1.8369218128559015 39 11512 38 11930
474 2.7830778004714456 -1.9551229315506853 8.4273438249950079 148 143 137 1.2576879923679865 2 2915 39 6413 1 2806 37 8133 41 6672 4 1452
1584 1.63741050208112 -1.8879536747958752 8.7994221846475114 146 161 182 1.8255170304762658 37 10183 38 11969 15 10638
475 2.0761532631635418 -2.080605606111567 9.3489363912935257 132 131 125 1.2473840076892291 39 1918 1 2824 37 6157
1585 2.6455582619143878 -2.9050403425606683 8.5822433465406807 121 121 113 0.69672146517152 4 1146 37 2006 41 4168
1586 2.8433590757488187 -1.9405281627592914 8.3530360263046788 110 107 100 0.79852830937207775 4 1398 37 6250 41 4419
477 3.4685538024471341 -1.7411873931216475 7.5785586613138642 170 165 159 2.0218010413755176 2 2856 1 2844 39 8939 3 1978
1587 2.6549920805765934 -2.2084764056145683 8.5870547818752403 110 107 100 0.47026650646787277 4 1463 37 6147 41 4530
478 3.7587064556988472 -1.6395654975271798 7.1799064630218483 149 144 139 0.44585845230633725 2 2825 39 6411 1 2865 4 511
1588 1.906169818860995 -3.927414288025616 9.53279032721621 168 168 160 1.8166955506456404 4 1424 39 369 41 4608
479 3.7274686411450437 -1.6394357327925626 7.2149573876210864 167 166 158 0.77505562049590737 2 2837 1 2868 39 6418 4 4029
1589 0.022029618304713897 -8.9304284065517283 12.121736992418834 160 159 153 1.1693201682462775 4 4296 41 4612 42 5093
480 3.6864764052321184 -1.6438460357483786 7.2795563016189391 113 109 98 0.29570912676709377 2 2843 39 6424 1 2872
1590 -0.31185721209841483 -9.5136622956833623 12.568004450340554 150 149 143 1.4197812207721434 4 1318 41 4689 42 3304
481 3.6849137005911787 -1.6419980822178519 7.2725298552352369 113 109 98 1.060868593159896 2 2842 39 6423 1 2873 4 4058
1591 -0.12358453157789741 -8.217912780466639 12.289881418347656 140 135 130 1.5487533470653991 4 1548 41 4892 42 3360
482 2.8349094909781916 -1.8037608470852788 8.362948729819875 128 123 117 1.377495423114689 2 2964 39 6486 1 2876 37 6305
1592 -0.26444556344406128 -8.4506581797799445 12.449644472386442 142 141 135 1.2709266837953248 4 1571 41 4908 42 5191
1593 -0.14062275551489045 -8.1105098032252201 12.318078856443389 87 86 81 1.0421376900430099 4 1606 41 4923 42 5188
484 3.7524309250328867 -1.6139037569695753 7.185738292389626 86 77 64 0.48661106290297446 2 6037 1 2880 4 4027
1594 3.0524112537688168 -0.45594256168156888 8.1300638441524402 0 0 0 0.067389604862946095 4 1976 40 606
485 3.7643641469193354 -1.5991138671195755 7.1824893252675688 73 69 60 1.2150564383908071 2 6039 1 2891 39 8949
1595 -0.21853316531338277 -8.0897043795655978 12.424944751949337 152 151 147 1.6591004058411585 4 1661 41 4978 42 5205
486 2.8175794342539011 -1.771707102969323 8.4015160439681971 120 115 109 1.2280727738403794 39 6509 1 2892 37 8170 4 4402
1596 3.0275988356656458 -0.40100775406433764 8.161842330765074 104 103 99 1.4270792995962813 37 3879 40 640 41 5006
487 3.7882438795803677 -1.5850821815143175 7.1372518395545441 112 106 100 0.69069436136077433 2 2844 39 6435 1 2893
1597 2.7092757451170209 -0.96407257295221405 8.5586742294208076 156 155 149 0.46573512890234864 37 3395 40 433 41 5068
488 3.7882438795803677 -1.5850821815143175 7.1372518395545441 112 106 100 0.69069436136077433 2 2845 39 6434 1 2894
1598 2.7092757451170209 -0.96407257295221405 8.5586742294208076 156 155 149 0.46573512890234864 37 3394 40 434 41 5069
489 2.792731114695957 -1.7518518158818093 8.3947151347689175 156 153 146 1.3417358058315305 2 2989 1 2899 37 8172
1599 -2.987161480036701 -3.4259896821978373 8.2654469635821997 80 81 76 1.666304245435821 41 5654 42 5390
490 3.8304939882038038 -1.5547149525034252 7.0880047812273741 126 120 111 0.87125633031045757 39 6445 1 2903 4 3992 3 1893
1602 -3.4913975549982772 -3.1107106125548856 8.8028614203409621 41 45 39 2.8425950181127555 4 4852 41 5797 42 5512
493 1.8337974575324025 -1.787875966100537 8.959196238515613 62 70 75 1.5284616483438636 39 6564 1 2926
1603 -87.951100816286242 -68.801097970833183 103.50870803977261 47 47 39 1.8335245487412124 1 1303 2 5664 41 6035
494 3.4326448999730834 -1.4745352382968657 7.6160497928317925 169 163 157 1.3897802203208665 2 2980 39 6568 1 2953 37 8280
1604 -82.384988381431896 -60.777040352674952 96.809074742624617 67 72 63 1.9061579207978903 1 1452 2 5742 41 6046 42 4379
495 2.3483111699223063 -1.6177379090539259 9.0179286789730977 97 96 93 1.9371342498203148 39 2228 1 2962 37 6312
1605 -74.098765063869436 -48.649276795098146 89.040139953327184 125 117 104 0.86641307383055022 2 5850 41 6074
496 3.9594852721757317 -1.3340879160235311 6.9463868880083037 113 108 94 1.3539219104352456 2 6069 1 2974 39 9003 3 1953
1606 -74.756781031170107 -47.911054932337009 87.635894126471698 182 203 223 0.38961488198715233 1 1781 2 2531 41 6082
497 -0.071786299070967272 -1.736539822898957 7.5533097014231769 43 48 52 2.3436633372128872 39 6427 37 6284
1607 -74.383587470827834 -45.612235298107642 87.586412792741385 220 224 224 1.8169127878418161 1 5401 41 6100 2 2610
498 3.8977548646181361 -1.309418862120455 7.0087226201303743 182 178 169 0.28160176559295125 2 2945 1 2984
1608 -42.712865473979853 -24.131708422198155 51.076366025807225 137 126 107 2.144020826627878 1 2056 41 6110
499 3.8966506303696535 -1.2865849127453588 7.0236611076044211 101 97 88 0.55394223909348861 2 2956 1 2992 4 4019
1609 -67.43661195813867 -34.405136102583391 80.117814494454521 136 144 145 0.87862634666578765 1 2129 2 2916 41 6147 42 4661
500 3.896750892521875 -1.286431171087594 7.0233832342371523 101 97 88 0.51954220119015893 2 2957 39 6610 1 2993 4 4018
1610 -62.142613785213648 -27.663879709674102 74.310711082102273 185 186 173 0.68070428792673943 2 7735 41 6167 42 4731
501 1.3268527028113339 -1.5633200745046554 8.5230097174641575 220 234 255 2.7617974851147431 39 2209 1 2995
1612 -53.470509743621449 -12.99333141801533 61.528651311714732 108 103 82 0.24241191642422877 1 2776 41 6277
503 3.7509002705503955 -1.263202694499473 7.2030437211242999 162 156 146 0.3801747650455794 2 2993 39 6639 1 3003 4 4093
1613 -54.288266904375568 -13.034586966299957 62.664878556626512 244 240 224 0.91132128512325183 1 2783 41 6281 2 6427
504 3.73878635832149 -1.2385319159233448 7.2217248325192589 111 105 95 0.66010451552102944 2 6107 1 3010 39 9052
1615 2.9473522315614518 -2.5260491822374016 8.2206032833731726 123 120 113 1.3301564845333278 37 8030 39 6083 41 6396
506 4.0613618756683714 -1.1613869786651791 6.8129976490266086 177 172 168 1.2013913338435287 2 6083 1 3025 39 9053 4 3947 3 5122
1616 0.5073766455202442 -9.2131442140095068 11.450667003666714 104 103 97 1.4890499618487485 4 4155 41 6487 42 4912
1617 2.6555524028423068 -2.9853970876097469 8.5897755701530105 158 158 150 0.69940638844706082 4 4259 39 5896 41 6502
1618 0.47510212983148803 -9.1184480377718682 11.588460673099789 146 145 139 1.6434336467764046 4 4187 41 6540 42 6267
509 3.3066286150259283 -1.195224388875882 7.7789969698603345 168 162 154 0.87254110019713393 2 3092 1 3044 37 8317 41 7983
1619 2.6648904284470714 -2.5441006617748276 8.5682880147392897 113 110 104 0.7176043986864663 4 1314 37 6019 41 6599
1620 3.221635135093543 -0.95479663058179742 7.8957766200599444 104 99 94 0.71913152203183905 4 1502 37 8355 41 6637
511 3.7096756488474782 -1.0808072581842256 7.2662762485581878 187 182 177 1.1571697375858998 2 3067 39 6756 1 3078 4 4158
1621 -0.94996421180745871 -12.160583047894697 13.402230864182625 149 148 142 1.8184574632242043 4 6029 41 6642 42 6360
1622 3.1019036932437078 -0.97778172810763153 8.0452651754592477 112 109 103 1.1454070285002373 4 1635 37 6605 39 2628 41 6722
513 3.6298264864811807 -1.0805167376164444 7.3715556301896168 116 110 100 1.0095748053626803 2 3080 39 6768 1 3081 4 4197 3 2249
1623 3.2706527661803784 -0.52984240028777518 7.8502383791197605 150 147 140 1.0018870501333728 4 1713 37 6838 39 2925 41 6741
1624 2.0377345788901766 -3.6487110538885079 9.5349199488147924 155 152 146 1.5087898486516924 4 4396 41 6789 42 4900
515 3.5511287549223214 -1.0459260829102968 7.4686320344972579 155 151 142 0.7336616787873087 2 3105 1 3092 39 6797
1791 -3.694661612637578 -3.4896454749014691 8.7769066270464755 198 215 208 0.15028103360328093 41 5755 42 5504
1258 1.1314233259510627 -2.0183864765051744 8.6957896383751887 5 5 3 1.6412729331939997 1 8699 37 9884
149 2.8838345575067517 -0.19809406927313017 8.3141556102103564 172 164 151 0.29534025520294838 39 7189 41 8230
1799 -71.765354006379098 -53.386658484384945 98.842116668062133 138 131 119 1.3844888284599535 2 5818 41 7679 42 5898
1276 2.6769133057893679 -2.4058420336826858 8.5484182536188253 151 143 130 1.4624551591607364 39 1459 4 1357 41 4401 37 6071
167 3.7505996571117337 0.27152155633013852 7.2724990971754417 187 174 150 0.52056485072789893 39 7368 40 6282 4 6124
1817 0.19770982259067216 1.2804264875997837 6.388803632156427 115 118 120 1.6014116167586443 41 9594 42 7905
1288 2.9055115765933128 -1.2142879752910649 8.2822967379689665 187 183 169 0.9225436185097925 39 2449 4 1736 41 4722
1829 -55.280516537193932 -21.895653265415177 74.066512323403884 133 130 121 1.3761809728924586 2 9497 41 9957 42 8379
1290 2.688341677000512 -1.4850391864897516 8.5725825379301224 187 182 169 1.9422268236412659 37 3028 4 1841 40 101
181 3.0253659019600452 0.93502962987321081 8.2008884074179527 129 124 110 2.1676247190139755 39 7581 40 4752
1831 -4.9080857556509123 -0.30308782263183875 10.723054554913812 36 36 36 0.64035450110037906 41 9923 42 8507
1291 2.7652175053207793 -1.1213539937343959 8.4842069783104872 182 177 164 0.6734366175064288 37 3348 4 1937 41 4933
182 3.1190991696601746 0.93210613472693715 8.0874213460983562 131 126 112 0.88518065009709723 39 7586 40 4741 1 3880
1832 0.42208208859949559 -9.6743713963851832 11.533927040189967 188 185 179 1.1967366365702803 4 8252 41 10176 42 8557
1292 2.5150333827078231 -1.6422463456285099 8.8371246159548864 133 128 115 1.4823496235906919 40 86 4 1942 41 4979
183 3.7921426051617075 0.81575844987309909 7.2282411319262101 168 156 132 1.2025960416640196 39 7589 40 6381 2 6514 1 3896 4 6181 3 5889
1833 -4.0892532364293945 -1.3297447883808369 9.7980277405340619 46 46 46 0.88545538804885293 41 10109 42 8618
1293 2.5319299983927288 -1.5712637339480466 8.8138883808243111 166 162 151 1.3089784435934073 40 132 4 1956 41 5004
184 3.5269936370873758 0.87195146747457941 7.5769959849531272 152 140 120 0.93611918239769787 39 7592 40 4709 2 3810
1834 -1.6181836238081937 3.7401365514488476 7.3603541518965621 49 52 51 0.60062733439109817 4 8315 42 8632
1294 -90.737441860015537 -87.59396818946378 125.62958016124311 184 192 195 0.97284014132064078 1 1004 4 2900 2 1948 42 2091
185 3.280433341507174 0.96610774756978768 7.884638397558855 184 173 154 1.2247981736862752 39 7608 40 6434 4 6297
1835 -82.561510650137208 -60.201182122895915 96.806185927457179 188 197 205 2.6857786179495395 2 9978 42 8735
1296 3.7506913887554978 -1.6169207260653062 7.1876229780991938 78 63 49 1.7364029400244165 1 2881 39 8945 4 4026
187 3.7032728103826367 0.93392302420311757 7.3449212648996633 179 167 147 0.37600680676388976 39 7626 40 4711
1837 -71.974004127492307 -47.198887968555439 90.125649499221936 152 144 133 1.6332405474844307 1 9394 2 9910 42 8741
1297 4.0938408298321445 -0.51532404033123402 6.7986703689570742 201 188 170 0.88587001194560877 39 2868 40 152 4 4077
188 3.6836325273832302 0.9447455572511283 7.3654897531620698 147 135 115 0.86686328411094016 39 7628 40 6403 1 3934
1838 -71.974004127492307 -47.198887968555439 90.125649499221936 152 144 133 1.6332405474844307 1 9393 2 9911 42 8742
1298 2.6238078350531175 -4.081389080660605 8.5830386315641451 149 141 128 1.5275548054411552 37 8776 4 4096 3 1270
189 3.5105001218159879 1.0445667461259074 7.594058602628718 143 130 112 1.2401832298620676 39 7643 40 4740
1839 -65.252153887594133 -30.595508592949415 76.927564275796811 220 226 227 1.9519797938415255 1 9290 2 9928 42 8754
1303 3.8773837924654933 0.60499299653251382 7.1072188787463775 210 199 182 1.3358755703590655 39 3731 40 4600 4 4437
194 3.0777375758100636 1.2846831886655392 8.159130577360461 167 159 146 0.69246075848801913 39 7703 1 6459
1844 -8.895795618397786 -4.3615382618429344 17.588619202714028 0 0 0 0.44035308242276294 4 6613 41 8704
1305 2.5010457872367273 -2.1302973780487089 8.7851215583200961 109 105 85 0.96343113182215578 37 2546 4 4461 41 6853
196 3.9342030802010872 1.1548649588931894 7.0438165962287016 153 141 121 2.0428222062128265 39 7725 40 4736 2 3902
1846 -60.539255073532452 -25.65391177028112 72.262641127084393 254 255 250 2.04203498783524 2 6178 42 6132
1306 2.918722496284742 -1.2355973477154298 8.274616261843784 126 114 102 0.77799010484197739 39 6765 4 4473 41 6822
197 3.8024021258256258 1.2347360056956314 7.2546416030577481 185 173 153 0.91626886392789519 39 7735 40 1365
1847 0.69952217451280851 1.7448944346640085 6.6612876500140361 150 149 145 0.82273742209059675 4 4956 42 6484
1307 2.8419853468686274 -1.3848444312372297 8.3872787360723748 191 186 173 1.5148667866709775 37 6461 4 4478 41 6838 40 105
198 3.8458733105971743 1.2769146168930841 7.1527833617604744 178 166 148 2.1710032246016082 39 7759 40 4772 3 6022
1848 -4.7197863688916408 0.022158599400092287 10.352630515411899 2 5 4 2.545268347449305 4 7408 42 6777
1308 2.8362787978527115 -1.3772652452412049 8.3730425463918277 191 186 173 1.0719863112764085 39 6689 40 106 4 4479
199 3.9475144820964676 1.347797881537367 7.0587299459965891 183 171 150 0.89349204075977218 39 7790 40 4787
1849 -98.78169606666701 -88.551045689664917 118.27350741336068 117 114 108 2.3543270804170273 1 8022 41 8657 42 6855
1309 2.8882694669559097 -1.2458280174841319 8.3253780665682307 168 160 147 2.6932008188246939 37 8281 39 2427 4 4487
200 4.1241811373775832 1.3054539146128763 6.8238576949378347 198 186 164 0.87982178329569372 39 7795 40 4762
1850 -98.20840341151343 -87.426603428549811 117.84907864834419 56 51 46 2.258777427972805 2 8432 42 6866
1310 3.2324471538148161 -0.39546088269951907 7.9034436081126058 148 140 127 0.78494148946991338 37 6868 40 585 4 4537
201 3.9232037397597956 1.3767795590975231 7.0787463266305224 175 163 141 1.6379674301772396 39 7798 40 4793 2 4031 3 6042
1851 -3.4837635014262029 -1.9820303551953058 8.8234585061332016 39 39 39 0.50155445595068149 4 7730 42 7998
1311 2.5506440178534051 -1.6139270973139945 8.7265497855461387 174 169 156 0.56502349225943793 39 6616 4 4567 41 8142
202 3.8694256608314399 1.4238811031865588 7.1397748285733318 181 169 149 0.017339472914886748 39 7807 40 4802
1852 -3.1710248951521538 -4.6203002129006956 8.382972413391494 101 123 148 2.8696463855379486 4 8131 42 8440
1312 3.1231986905323272 -0.20832249326323612 8.0408809766113194 165 157 144 0.86907569404836382 39 3177 4 4638 41 6963
203 4.091435274246443 1.3768709147898051 6.8560342410249726 185 173 151 1.0438522499761702 39 7818 40 4784
1853 -78.888661134545615 -54.491728177373822 94.050580437527714 165 173 178 2.3608681301981456 2 9903 42 8739
1313 3.6711675649707258 0.87030981990101075 7.3840203836378775 0 0 0 0.17402304847276728 2 3801 39 7601
204 4.1409598841176098 1.3865549720133612 6.8110179938887505 183 169 150 1.6325700283287294 39 7827 40 6455
1854 -6.7038843934920171 -3.708215060170267 11.008174189654659 156 172 159 2.6274412237167333 41 10324 42 8796
1314 2.8071371247265375 -0.6780447797720226 8.4352187139222661 136 130 120 1.1855366554578519 40 561 4 4657 41 7016 37 3599
205 3.8071122771561958 1.514203934596563 7.2321823173241873 181 169 149 1.4856279884331709 39 7837 40 4832 2 4106
1855 -74.505737075041196 -47.490402136635623 88.939856807497478 173 180 189 2.802885325859819 2 9986 42 8809
1315 3.4907450271315548 1.3723957205944048 7.6414070464605786 137 124 108 0.12379963959417466 2 4052 40 1459 4 4782
206 2.9083002503883604 1.8363309287475871 8.3665187779795804 120 112 101 1.8510312122228587 39 7847 40 4955
1856 0.98585331612625993 -1.7724188334214115 8.3621002604457839 253 255 246 2.0982972596975067 38 2067 15 3248
1316 3.3333342593962669 1.5532474082816725 7.8520327100282357 198 190 177 0.036185774950655662 40 1584 4 4858
207 4.2097897025572912 1.4536086050009807 6.7107569322989793 193 183 160 1.6174593713942098 39 7860 40 4794
1857 1.2016963504377065 -1.2595223877466486 8.0086667631664543 0 0 0 0.80426586234218422 1 3093 38 8664
1317 2.7091676374397675 2.1622834875944346 8.6493807396587208 173 169 160 2.702972859589555 40 1887 4 5043
208 2.9171209743357958 1.8985287452823341 8.379781953798167 133 128 115 2.0389125204741649 39 7864 40 6536 4 7277 2 8094
1858 1.7597903288433294 -0.93597081634756574 8.0663762580676615 3 3 0 1.3537613852999828 37 8326 15 6895
1859 1.3861305970356474 -1.4757002931346823 8.3007592606181522 155 155 145 0.35415563860354593 1 5970 15 8512
1319 2.6063106277090404 2.6275264816012851 8.7975789063168222 180 174 166 1.945615961835468 40 2091 4 5103
